# .PCD v0.7 - Point Cloud Data file format
VERSION 0.7
FIELDS x y z
SIZE 4 4 4
TYPE F F F
COUNT 1 1 1
WIDTH 400000
HEIGHT 1
VIEWPOINT 0 0 0 1 0 0 0
POINTS 400000
DATA ascii
0.6158014771152015 1.762719683389343 0.4943793509671818
0.5008069780783426 -2.299999952316284 0.512162850836819
-0.05672389711623005 0.572756792664918 3.1500000953674316
0.4054275367839067 0.24203575796764898 0.6160152005105395
-0.009999999776482582 0.1703669178266103 0.049171675966719786
0.37573296995096644 -0.4764795952509323 0.0017662990898372937
0.13238076420401915 -0.1536587809030382 0.0010641013271710245
0.6700000166893005 -2.2616864950236586 0.09915584794388987
-0.009999999776482582 1.9812805279779075 0.5097911619077296
0.02908705573891801 -0.9800000190734863 0.17351426804502434
-0.3956267447436721 -1.6399999856948853 0.03890950038748464
0.6700000166893005 0.34448814435624264 0.1802335709346572
-0.6700000166893005 2.160891813133502 0.07536801758576828
0.3016866491577884 1.6270514150210202 0.633936574192953
-0.2921268922304274 0.9918570159620503 0.0
0.2751257093570685 0.6700000166893005 0.38955105852954375
-0.6700000166893005 -0.535002511136967 0.44588911793380015
-0.12394323504847737 -1.6408381861484396 0.0
0.4801064036272847 -1.6339901308308382 0.44141568774693585
-0.14288981114594201 -0.320000022649765 0.3289076984891476
-0.14390203127763426 -0.9676059124574166 0.20513317669809594
-0.34119480895617715 -2.319999933242798 0.4434923079783412
0.05509902848770809 1.9900000095367432 0.5575678339627981
0.24914425637849869 0.320000022649765 0.14153697799838216
-0.264774362230189 -0.7142808110198344 0.30000001192092896
0.6700000166893005 -1.57888186641658 0.40305279886961803
-0.13847416509771301 1.1979136524331684 0.6468928888390505
-0.1722068833402787 0.2239615696477036 1.5272323963256174
0.36366895953319556 2.299999952316284 0.5685907017389364
-0.6055552472190652 -2.309999942779541 0.2536025019736987
-0.02923255688294879 -1.3300000429153442 0.10348978969159284
-0.060384946435458 -1.6055290179972446 0.0
-0.20970903736902963 0.19204588763397332 0.5903929772698571
-0.4702416863527813 -0.05642727225782093 2.3544277572139327
-0.576979094223616 -0.05113345963348134 2.7129329008903493
-0.6500000357627869 1.078104560806946 0.052387337496640374
0.2156676054689824 0.320000022649765 0.24429798489678756
0.044943539454188414 -2.190143296349496 0.15953031217406394
-0.2569015142525788 0.6777119049540871 0.30230745842356566
-0.179616403871247 -0.9800000190734863 0.017065877893055026
0.6700000166893005 1.1284785303697253 0.09755986466207811
0.03946715131574374 -0.320000022649765 0.01562804332307044
-0.042719949740539484 0.26155034392734056 0.37552330123645355
0.5255796703884781 1.3100000619888306 0.2500411520601658
0.6205812928345338 1.9921461398660876 0.30000001192092896
0.5211840144279546 1.7864971164487418 -0.003230133457919393
0.09751342381060402 0.28872003255558853 3.1500000953674316
0.009999999776482582 -1.746051017560636 0.571506255043536
0.04377140614277619 1.5926402809424123 0.5123684242807736
0.585622913162597 -1.8798997040109895 0.30000001192092896
-0.6199416652528819 -0.15745703851860227 0.5355345923850331
0.6600000262260437 1.9841235439281484 0.3073271796595498
0.5980920385810424 1.3300000429153442 0.22003990220871156
-0.45027243501705694 -2.319999933242798 0.47484988995815336
-0.009999999776482582 1.9801704548700079 0.25100685443262327
-0.5198812425208891 -2.2877726661490483 0.27160598060153424
0.22172534244109907 1.8464201203184458 0.6733850383192979
-0.08904918422144464 1.9596824420758008 0.29619439848267304
0.08812296444378676 0.35793162147532875 0.0
0.6572914656262909 0.219531601070027 0.30000001192092896
0.5455255572941317 0.3538569666867243 0.012754804702812594
-0.3114629323956373 -1.659999966621399 0.04033455436383193
0.6500000357627869 -1.3703422674026051 0.327469616719855
0.5681956366272846 -1.0 0.3217554019381513
-0.6500000357627869 -0.13193907626648738 0.24223765416811827
-0.6600000262260437 0.6678332234136835 0.41039499959930525
-0.12220241099976466 0.30889284008295687 0.4709796368276319
0.5343532709641924 0.009999999776482582 0.4947611944133323
-0.3448820840539027 -1.3100000619888306 0.49406503245229383
-0.2513284686869289 1.6741546513108299 0.12008409651677898
0.5254206898921316 1.9571987703436853 0.09820673492279551
-0.46142400428008434 0.4654493564114195 3.1500000953674316
0.2910522279135849 1.686049608794912 0.0024599949303359017
0.41784145015850577 -2.113420365873023 0.0
-0.6314109339734457 -1.1881997047754451 0.0
-0.5170439194903959 0.4428630613114503 2.5116251414307396
0.23952902762075579 -1.6254909752123032 0.0
-0.009999999776482582 -1.665108595489208 0.47441355626002957
-0.45226310545034076 -2.309999942779541 0.2359067674928101
0.5278570010066942 -0.6405780938627733 0.13066133361521048
0.23669692957289062 -2.2264795521253045 0.0011997234015197757
-0.4542867784857289 -1.3395085981296608 0.31062934906521256
-0.07001810260587166 -0.39277947465621044 2.0942509632440016
-0.29035132241614686 -0.9701560332567768 0.25100240011619473
0.2691594913200298 -0.6389446747257896 0.505859598749529
-0.3494795751211193 -0.18404725332024108 1.9488170261554725
0.6590913633503108 -1.6781773136090075 0.30000001192092896
-0.6600000262260437 0.8995688052039792 0.0007987241006627288
0.16935882402348135 -0.715246876072567 0.30000001192092896
0.009999999776482582 -2.0031573785301986 0.499465551352591
0.5719702397215616 -1.0907339873837631 0.30000001192092896
0.3424944057994648 -2.002221215306136 0.434057367687433
0.6700000166893005 1.1429438129418743 0.19585095170343858
0.42946696831989484 -2.114222735841784 0.30000001192092896
-0.35860549345628173 0.320000022649765 0.4393992567932694
-0.6500000357627869 0.608289714756681 0.445114833457723
0.6500000357627869 0.18007153147099553 0.16417292537716616
0.6700000166893005 1.9437303809761115 0.006904048253167816
0.6203242632333723 0.4331514048952929 0.25297978196075604
0.5231076816165242 -0.46337627952871946 0.6169459364994891
0.6700000166893005 1.5702998506334884 0.13932622461406569
0.3685068681949505 1.2981824045525578 0.06542383089688827
